# 3D point list with one line of data per point:
#   POINT3D_ID, X, Y, Z, R, G, B, ERROR, TRACK[] as (IMAGE_ID, POINT2D_IDX)
# Number of points: 378, mean track length: 4.9377952755905508
7574 -1.1804968571653458 0.78370495312848054 2.5283630138083981 87 65 45 0.11329524660768922 12 717 83 105
7577 -1.273489042854032 0.96918511478263447 2.6770475780465897 114 142 72 0.34840617456825096 35 462 74 1089 83 167 51 9
7579 0.33397793774280554 0.40767373128913453 1.974516486980221 192 189 198 0.96320274850082432 12 299 83 180
7581 -0.42882032708897949 0.60546629194317714 2.730019389224569 176 159 90 0.27019902137078694 8 401 83 232 63 331
7583 -1.5889844512840989 0.33452543871997831 4.6074465534843085 186 166 98 0.74843422898018352 12 154 83 268
7584 -0.45252289468822349 0.96692845873354483 2.6290404178334015 130 138 80 0.080164017287936373 74 475 83 318 30 150
7585 -0.43951181479642698 0.96293259079992022 2.6307633633685872 99 126 70 0.054638533573859588 12 349 31 256 83 319 98 233
7586 -0.78488044473560259 1.2589186861550423 2.5766781899351612 113 180 88 0.057888153763415925 34 624 83 321
7588 -0.62730157760537208 1.1866956516503293 2.5834094143881932 103 156 81 0.21708476339162919 31 103 83 333
7589 -0.62556996782272123 1.1880374774451425 2.5780567333040483 103 156 81 0.50029616514339237 2 998 98 163 83 334
7591 -0.53755560460308538 1.2332307554075255 2.5891886691531822 85 141 72 0.053739643100253143 59 578 83 368
7593 -0.84184007989083176 1.4603119099715816 2.6076558644470214 111 202 99 0.080502209279831344 2 568 83 371
7594 -0.74566018876659701 1.458018812554438 2.5969587270778214 146 202 104 0.31233887884743683 85 1238 83 385
7596 -0.16406566127694105 0.9728669200824791 2.7047055667993201 50 102 54 0.011760986958141845 2 482 83 394
7599 -0.69774244151060705 1.4573713152083296 2.5974840054869426 233 219 131 0.14424218035202702 34 707 83 409
7600 -0.65784664013250571 1.459402220539161 2.6005756632734722 111 186 92 0.22202284559751223 63 588 83 418
7602 -0.30049258379457683 1.1862426268867854 2.6360499499485837 62 111 60 0.099820360964242433 2 537 83 428
7603 -1.609495050004017 0.80056136266240474 5.1317093093096764 85 140 74 3.3085031004355985 12 280 83 429
7605 -0.35462411778177366 1.2936309350538753 2.6203051873368781 244 226 136 0.075107079022302375 8 88 83 457
7606 -0.23570622097725866 1.2022393420666655 2.6513085748185348 66 111 58 0.27420213250306796 12 519 54 410 83 461 44 77 78 238
7607 -0.23503217168322085 1.2026235835676808 2.649002423889609 66 111 58 0.21734943478283578 12 518 31 212 83 462 78 237
7611 -0.87841602639619742 1.1641356446845303 3.7698826412635658 78 123 67 1.4299450435066539 55 676 83 475
7612 -0.34889528475280457 1.3594351354883274 2.6171441060589267 78 123 67 0.077526414039932379 34 658 83 476
7613 -0.48064034131753869 1.1953974412929385 3.1443513929335514 61 115 62 1.1264062832313584 82 639 83 483
7614 -0.27488337979441119 1.3809105047486459 2.6356348524349147 75 124 68 0.33984455865208352 74 680 83 508 88 278
7615 -0.39956655710619382 1.2545341400198087 3.1514890963742634 68 113 62 1.1145119998443809 82 634 83 520
7619 -0.29634607971200611 1.4423468719568653 2.6303238384984313 241 228 141 0.049087850067174324 12 594 83 527
7621 -0.21169913369912741 1.3715765279178864 2.6534893005822209 252 239 149 0.31333503880809188 74 682 82 524 83 534
7622 0.016312229627618365 1.2815221301561246 2.5330933685302481 212 203 205 0.6836162756069073 74 656 83 545 75 291
7623 -0.27458471696501291 1.4690019197954274 2.6388341641236597 170 180 109 0.11563281489106562 55 374 64 538 83 547
7625 -0.27420720572197638 1.4697127625149058 2.6377064692504217 170 180 109 0.0043351766478185831 64 539 83 548
7627 -0.38407418666743914 1.614089148914549 2.6556934527190603 103 180 91 0.032304820572834236 64 613 83 564
7630 -0.038601044628578607 1.564942770468466 2.7531060801489513 80 131 66 0.10173041731280889 12 642 83 619 39 433
7631 -0.2196615781598657 1.8430473962031122 3.4538648110335628 240 222 212 0.38423140435441328 35 828 83 638 7 634 100 1348
7632 0.11273082545491267 0.28294515080470456 1.8037651704779747 142 156 112 0.25401499917624065 62 199 83 688 39 506
7633 -1.1068483601783028 0.74272376034319454 2.4597692011818109 78 59 41 0.52444823617835368 12 713 64 326 83 697
7634 0.08856008766353482 0.38780603637409755 1.9123922289682875 173 179 127 0.020201229357023606 12 793 83 702
7635 -1.1346991365990986 0.74818543290108297 2.5397353265688953 250 247 251 2.1761817283111209 83 703 9 318 56 83
7637 0.16358247219887756 0.41350485128737696 1.9392598734856406 83 153 87 0.12021352501830726 12 231 83 733
7639 -0.81929248176806535 0.73528120844874378 2.6537564033789889 93 138 67 0.38903642867293114 74 1496 83 781 41 1064 56 386
7640 -0.9032721590567353 1.155640232235865 2.5853778028769536 118 185 90 0.069059715783690342 35 1250 83 856
7641 -0.9032721590567353 1.155640232235865 2.5853778028769536 118 185 90 0.069059715783690342 35 1249 83 857
7642 -0.10776980650476051 0.59550017719528614 2.8219980154092323 189 179 103 0.11647112999646096 74 1034 95 978 83 892
7643 -0.76356404841615899 1.3566639509326355 2.5851738535227025 125 195 96 0.19516905038453455 12 899 62 1028 83 919
7644 -0.71612915079696404 1.3964610110207432 2.5844039271956061 124 191 95 0.030020057929796999 12 923 83 930
7645 -0.54876234312814698 1.3170648498809998 2.5894153272899962 238 225 136 0.021580903228657043 55 1147 83 935
7647 -0.36861967492457504 1.3176484079328419 2.6117630202702022 206 201 120 0.058526758389502428 54 846 83 960
7648 -0.62283200815019923 1.2663613713900952 3.1403382051174802 73 124 67 0.58120314002244511 82 1337 83 965
7650 -0.33403702508387945 1.3980379470086268 2.620841580471486 76 126 69 0.1374357007824733 98 737 83 982
7652 -0.27789634072150143 1.4070028011283431 2.6335661443845861 69 118 64 0.027375803151721105 35 1342 83 989
7653 -0.26078235186909904 1.4135654973580658 2.6397019517943452 68 120 67 0.14594640897584696 54 405 83 995 78 546
7654 -0.70573618208289968 1.2148117927463276 3.7930193470578546 210 201 124 2.1883679631201716 55 1220 83 997
7656 -0.2474088822377338 1.5325901243179605 2.6500245809159026 81 129 68 0.47498279362044238 31 627 83 1010
7658 -0.96917893053385373 0.67558349863456046 2.1910974482325485 255 255 255 1.0649010241004935 12 1099 83 1091
7660 0.10191208676948177 0.36715711444367255 1.8771154949095288 84 156 85 0.50896330905014631 74 1399 83 1103
7661 0.04570959470467658 0.40290337048269936 1.9488290447142373 160 175 122 0.23028202311855536 74 1411 83 1108
7664 -0.90370315322123307 1.3089567629343166 2.5914812749704348 118 200 95 0.042366746417178219 2 1403 64 1418 83 1207
7665 -0.90220066481430683 1.3095633222388647 2.58843877696602 118 200 95 0.2190616766123733 2 1402 43 2004 83 1208
7666 -0.69707651425388018 1.1746272883492888 2.5799037337977664 235 220 126 0.031309534180992374 12 1238 83 1213
7668 -0.24434454386808191 0.8691546836998103 2.7028812903803461 49 100 51 0.14998664729573319 37 1621 83 1230
7670 -0.57728110324007431 1.3290432232216978 2.5876250956388187 76 142 73 0.18399945999160366 12 1289 83 1250
7671 -0.49956216793867286 1.2720269282304926 2.5924219535331163 229 216 133 0.11356480542166517 12 1291 83 1253
7675 -0.69793968101102499 0.99819062636547418 3.5671167849338081 61 113 61 3.0319858731827898 49 1602 83 1271
7676 -0.52096406507290505 1.467494636215722 2.6086626515735083 227 221 135 0.11513883660711462 82 1810 95 1583 83 1281
7678 -0.14404302335900721 1.1875831455017491 2.6780950021954184 52 90 45 0.14088209702014229 35 1715 83 1293 30 483
7679 -0.45682838420291577 1.4709602750977346 2.6164095342394327 92 162 81 0.098055511780167887 12 1346 83 1295
7680 -1.0862853961668888 1.1629561764791827 2.5878321432775908 0 0 0 0.068897139709965 43 1730 76 1667
7681 -0.38724794718859584 1.1398420670173575 3.1510047369250498 229 210 127 2.1086865041667124 82 1764 83 1299
7682 -0.20930764751296219 1.3151940660994297 2.6515110985026298 243 227 144 0.12858771407147401 16 1501 83 1305
7683 -0.49578539848716868 1.5690150026229484 2.6326161842598688 208 215 131 0.22108702789748108 2 1472 83 1310 39 974 46 988
7684 -0.49597177120002461 1.5698052821751749 2.6329525612730968 208 215 131 0.29046744261099644 77 1876 85 2002 83 1311 39 975
7687 -0.33328306435501637 1.5908740682561169 2.6431964416527176 228 222 143 0.2688146545687361 74 1719 83 1326
7689 -0.26644692432730632 1.5757460453937429 2.6569450428034136 230 222 142 0.21928985052399952 54 1279 83 1333 46 1008 39 1006 88 826
7691 -0.68435555072722598 0.25437504417713602 2.3513579549976638 0 0 0 1.1512827266704118 12 1094 83 1386 46 1090
7692 0.021465430585253846 0.28321085843126437 1.797805318001201 74 143 79 0.17188631821217398 2 1531 83 1387
7693 -0.78194695591771446 0.6379186471781535 2.6895575023520446 81 139 65 0.20435774319009234 12 1465 83 1424
7694 0.020280629429422291 0.21641175365015269 2.4974128545538004 150 190 126 3.4693719871418436 63 1649 83 1432
7696 0.23369809040228931 0.85141073243718934 2.2580380200992618 69 128 70 0.32105073804468964 12 1322 83 1497 78 1067
7697 -0.43820248077633916 1.4873752608497055 2.6109714755100328 88 164 81 0.052330205776179708 12 1584 83 1524
7698 -0.38470336134620114 1.5078318569967972 2.6254775427297217 134 182 97 0.14243903408601574 55 1883 83 1529
7699 -0.12732608675311127 1.4682923224772744 2.7016088343938591 128 139 86 0.17924673080345702 74 1968 83 1546 46 1187 39 1203
7700 -0.80274265923514621 0.60889946653844362 2.6928748084399068 174 160 88 0.046242788841263746 12 1648 83 1587
7701 -0.60267863652096332 0.8931819543061581 2.622248494688117 177 162 94 0.21073197348115916 31 1453 83 1613 30 1004 51 1101
7702 -0.84196961241833257 1.15719838616351 2.576770176717297 232 214 125 0.055754713912155029 12 1682 83 1618 39 1133
7704 -1.0271621273633398 1.2308891119186496 3.4579765959910231 203 207 121 0.88251256518736776 54 1614 83 1653
7705 -0.40952583847868529 1.3821714990294378 2.6100539311565529 73 130 69 0.13314226632736872 2 1845 12 1735 83 1664
7706 -0.0018462433817903606 0.12265258089662029 1.5595919262392863 255 240 201 0.20612150564642792 12 1834 83 1696
7708 -1.1071525249403524 0.89321056659108256 2.6307241977698279 0 0 0 0.54967989091622149 34 2167 64 1854
7709 -0.93888172053781171 1.3169095102296908 2.5958682943426949 237 214 128 0.037349758494567384 12 1790 83 1733
7710 -0.69557972353487008 1.1942667001125531 2.5766499415173021 237 221 128 0.42083371998417135 12 1791 74 2282 83 1737
7711 0.24705955158532009 0.45600344223378148 2.0633053034117794 69 123 70 0.64447233294063511 64 2056 83 1788 7 1809 80 1567 75 1490 46 1435 39 1401 88 1125 69 1163 11 1157 47 1018
7712 -0.62194293369367515 0.65180503327387551 2.6938626034625983 169 160 90 0.42585303619723497 74 2266 83 1789 39 1351
7715 -0.40459362043553027 1.1405704999733899 2.6125214341562786 91 165 82 0.29924159514471294 64 2133 100 2349 7 1832 80 1585 75 1508
7718 0.22748084382839343 0.3924314216706597 1.9552856492304613 92 124 79 2.0524814793968362 12 2022 83 1963
7722 -1.0224518196777144 0.59889067631493575 2.1819653546537201 207 207 177 0.38490943043302389 34 995 35 1016 59 1045 83 57 63 1168 77 1186 82 477 54 1062 95 934 2 780 62 1181 8 1218 31 687 70 334 30 681 66 204 84 293
7723 0.23279298684831259 0.38102496905454608 1.890338778838069 190 197 149 0.17462291243848271 63 18 2 198 54 602 12 233 98 512 83 124 74 168 59 118 100 108
7724 -1.2707982131251625 1.0532500634580824 2.6496399612105512 72 118 52 0.66965805546936752 16 1889 2 1774 54 1588 74 2079 77 2475 63 2125 55 2237 49 2149 82 2461 43 2359 61 2544 76 2312 98 1425 8 1615 83 1439 59 2269 85 2315 52 1803 78 925 30 968 51 726
7725 -0.5715777839006968 1.2296820431585054 2.5858766135233506 67 111 59 0.13139086392345997 35 604 82 590 83 359 63 510 95 627 74 602 34 604 33 284 78 113
7727 -0.41716133104078873 0.52256045710519361 2.7611375867705994 128 116 69 0.53135942978089556 95 288 62 201 54 819 8 907 16 847 49 1045 63 963 83 815 34 1007 77 360
7728 0.10730846216733517 1.1086161497721201 2.2355340610938974 145 112 81 0.2520509597145924 16 532 95 1132 62 619 54 1001 12 577 98 463 8 96 31 742 83 436 74 561 34 491
7729 -0.37600705528197381 1.3754017353783206 2.6140046034866993 130 130 76 0.97765572240491594 62 594 35 1331 54 842 12 985 83 1289 12 1340 61 1203
7730 -0.65604715720104267 0.16733996971348652 2.2374475311057189 115 90 62 1.5089745644772632 16 81 95 120 2 712 35 125 12 672 98 628 8 579 31 485 83 667 59 213 37 213 100 893 64 821 7 709 80 628 39 833
7731 -1.1058987433876579 0.77019808697126724 2.4971642850787941 149 145 147 0.31226885623558359 16 293 2 182 83 704 74 1484 98 22
7733 -0.06334393587753713 0.22501505606176253 1.7667281888097266 76 142 76 0.33095814068630391 16 1215 63 1259 95 1297 62 1198 2 1175 74 1369 34 1407 35 1439 59 1418 37 1412 100 816 82 1456 85 1372 83 1077 12 1104 98 785
7734 -0.28681444437601172 1.3581980243289427 2.6314757492965013 56 99 52 0.24990620331333269 16 1504 37 1725 83 1301 2 1454 74 1671 35 1755 59 1733 98 1101 62 1477 95 1569 44 773
7735 -0.42294573727054213 1.5602107447321527 2.6333195206766757 133 181 97 0.47984127044586106 95 1615 74 1707 34 1785 83 1317 49 1040 61 1256
7736 -0.40859097168058867 1.2839953720872876 2.6073757254452925 212 205 127 0.44460082186895311 63 1974 2 1838 74 2121 98 1498 8 1503 83 1655 12 1728 37 2275 33 1600 39 1292 88 958
7737 -0.72823347311521869 1.2929182395919017 2.5775340126142661 184 189 111 0.34054106120362349 12 1702 31 1411 83 1633 43 2156 61 2325 39 1149
7739 -0.36236637256363646 1.3407588117838074 2.6188259932808471 82 126 68 0.11931930311598911 12 528 74 659 83 471
7740 -0.26743803552980044 1.4882174537256105 2.6409919391189329 205 198 124 0.085659045775819398 12 613 83 554
7741 -1.0116428281056999 0.70995913142250522 2.5150668140392103 0 0 0 1.2413916574632222 100 1067 83 1111
7742 -0.48603827309060749 1.1161045013619448 2.6022367172564032 71 120 62 0.30134664387712751 12 1265 83 1234 70 553 100 1594
7743 -0.86319946525154956 0.50965153440902899 2.7338625617998593 70 139 60 1.0581246245758147 35 2554 83 1952
7744 -0.81575770445988782 0.33677615926556015 2.6124355215836381 0 0 0 0.83745359443462375 35 2560 83 1958
7745 0.099544911481629778 0.98920120455178329 2.2443351157139948 80 107 46 0.10957433960794882 43 156 33 61 52 129 19 104
7746 -0.22908145873148925 0.14641074594732495 1.7751482816483126 186 183 136 0.12546100489267728 55 126 33 103
7747 -0.083443670614094217 1.5153669498130342 2.7243840247322444 93 166 91 0.44815745985035305 49 927 33 136 44 758
7748 -0.37615523270563767 0.089423114495437397 1.8296756712537185 65 95 53 0.081624737750425114 49 203 33 150
7749 -0.37615523270563767 0.089423114495437397 1.8296756712537185 65 95 53 0.081624737750425114 49 204 33 151
7750 -0.04433905943038885 1.0374676392426947 2.7254507118546902 79 120 62 0.12984195263321191 49 230 33 152
7751 -0.38542163092048992 0.1072273751863676 1.8460197150741731 177 172 126 0.19048497950333299 55 187 33 155 52 101
7752 -0.28172521744548573 1.4905780662112142 2.6371751669187393 108 185 87 0.061484657028104114 55 1062 33 164
7753 -0.33816799501281275 1.5039914342473841 2.6274667327097361 109 179 83 0.11738869280385522 49 354 33 180
7758 -0.75621906454833943 0.56879517465896023 1.8696892321082283 54 93 47 0.77115858771032242 55 469 33 263
7759 -0.50977417951052584 1.1686433076307339 2.5938136606123861 72 121 58 0.081202147870466604 8 133 33 267 44 102
7760 -0.48055498044042472 1.0579533932912855 2.6097314256537376 225 213 135 0.18710344795526579 31 695 33 276 78 523 30 473
7763 -0.21981385698943573 1.0385229700246077 3.3525622034254807 77 110 52 1.7160246017643255 77 506 33 335
7764 -0.40409674083685415 0.50847628378775067 2.7784298767284779 56 96 45 0.17190880399883945 49 395 33 344 94 207
7765 -0.61952344699256723 0.9149828186009149 2.6192749343094608 72 105 51 0.13169568490107006 43 501 55 501 63 483 33 347 36 159 44 193
7767 -0.055538607777547211 0.37803013404647579 1.9739147934250025 0 0 0 0.043564936580073051 60 133 64 132
7768 -0.77740834249868085 1.0193889984585491 2.5912347987061208 78 108 52 0.045212169384141812 31 143 33 385
7769 -0.48636295284893166 1.3013961440795188 3.3259438240966186 78 108 52 0.30313246395501403 76 632 33 386
7770 -0.67188945858298466 0.76051513721743014 2.6515777863886565 69 106 48 0.039756614532406399 55 523 33 387
7771 -0.40508353313137541 0.94039659396650299 3.2955462266688182 66 104 47 0.97405126405520881 85 551 33 389
7773 -0.81488551189467129 1.0654398625259351 2.5817512318359279 71 109 50 0.10860514797101395 43 613 33 394
7774 -0.89701863166210016 1.5952095658608887 2.7908148418281193 79 71 37 0.15696736938829617 63 668 33 407
7775 -0.81920879600122509 0.90151669594414929 2.6134944189906788 54 85 42 0.11083069985311612 63 572 33 425 44 213
7776 -0.86663377213623627 1.012754710380342 2.5944212563652891 59 97 45 0.2084182390431078 34 501 74 458 76 559 33 431
7778 -0.86733487481962113 1.0131586504080803 2.5937251896979223 59 97 45 0.10513846103271897 76 558 33 432
7780 -0.91976485769452654 1.0850055576835054 2.5860958248577943 71 111 52 0.032237989725056669 77 647 33 445
7782 -0.97402046089576322 1.0789906158649114 2.5890155223421449 70 109 50 0.14844655158887379 49 645 76 612 33 475
7783 -0.97384541251908729 1.0786140717758341 2.5884031214293648 70 109 50 0.12016034537929601 43 689 33 476
7784 -0.97555707042499185 1.0289446820565069 2.5957921232614116 251 230 143 0.13031295092974235 43 683 33 490 41 370
7785 -0.9850297026118372 1.040881747960936 2.5945518793055364 69 106 48 0.095201689469641332 43 694 33 492
7789 -1.0195962673661079 0.96931422572775316 2.6108123705538473 70 95 46 0.05382200084912879 43 701 33 522
7791 -0.98067038049150212 0.6585764706731021 2.6809866651035419 175 158 94 0.16147751447616635 16 268 33 539 9 324 36 580 38 118
7795 -0.99374961163504871 0.59237631283302494 2.7078781703865431 56 84 36 0.088601605054510937 49 657 33 554 9 342 94 298 41 432
7796 -0.62941391955366011 0.93382906978302327 3.8925351565619981 56 86 36 2.2425582752054929 82 727 33 559
7798 0.097475336999438 1.1125735783920987 2.7724885303176157 73 114 48 0.29687858750516738 43 964 55 914 33 714 52 227 65 326 41 131
7799 0.0648432437915549 0.74446463775455185 2.8418138736470242 199 191 128 0.27875592965515023 49 1382 33 736
7800 0.082723089069328154 0.65657818924923173 2.874145305384769 93 159 65 0.43010327370658064 49 1380 55 898 33 747
7802 -0.39770377128247941 1.1977176647018517 2.6156587199068326 240 227 144 0.19366767044815725 49 1020 33 804
7804 -0.73631243490845311 1.1616743176741808 2.2296953363851739 84 153 68 0.85174934021361937 35 1217 33 827
7805 -0.6956511411842512 1.2845977555652168 2.5434695281190547 130 166 85 0.85957868210744937 43 1201 33 854
7806 -0.44898474366779384 0.66818221153871349 2.7053601388120536 174 162 100 0.23868988661956664 43 1087 33 859
7809 -0.73471005884084639 1.1316781014514394 2.5790340811477317 230 217 140 0.00015757426432727307 2 961 33 880
7811 0.68145535432046545 1.0276387603971748 5.6126088504968719 88 134 66 1.8921213905961518 82 600 33 899
7814 -0.39206666437433618 1.5863617720749459 2.6489741071623167 0 0 0 0.14023118780217719 77 1368 85 1231
7816 -1.0174803178472724 1.3532181059854325 2.6092893539706599 178 197 120 0.11103391568386627 77 1421 33 924 41 354
7817 -0.95928259385171244 1.0984024696779751 2.5876974604835392 67 113 50 0.035489638927836742 77 1345 33 931
7819 -0.4502553304190291 1.5858134293338249 2.638027580114902 0 0 0 0.58769212035685381 55 1133 64 1104
7820 -0.27362828760642777 0.39435158386353952 2.257556692382646 133 140 95 0.31355237897392124 37 939 64 844 26 877
7821 -1.001475220847525 1.0601170028682105 2.5948686381977701 65 108 48 0.023578044267408428 61 1333 33 959
7823 -0.96823182020685694 0.66058932535992243 2.6782786207791225 56 87 38 0.36864116487257848 54 51 33 983 19 399
7824 -1.1871704536773795 1.2686624280337222 2.6361291090104721 173 211 105 0.085994052714593386 49 1656 33 989 41 844
7825 -1.1218776837422997 0.99501794605285243 2.6269600850221773 58 88 39 0.11940989335017937 76 1258 33 991 65 1063 79 542 53 439
7827 -1.1387115161195085 0.72533883057779946 2.5191659462500406 117 91 64 0.65367580007049952 61 630 33 1005 9 314 94 620 56 380
7828 -1.2939939743751696 0.90802477343089094 2.9298088343096818 72 52 30 1.025038616549224 76 1318 33 1043 52 1560 18 1628 9 970 71 1024 96 1032 22 1256
7829 -1.2961744397689865 0.90672503551619255 2.927760764912148 72 52 30 0.85100350050491713 76 1317 33 1044 52 1559 65 1720
7830 -0.16392700360536366 1.6551112056768329 2.6860370984113087 180 217 130 0.62545605029821838 49 1741 33 1094 44 739 30 634 50 699
7833 -0.33402013132045943 0.57883548296236731 2.7590962010522091 93 119 66 0.46541673293055252 8 1448 31 1363 33 1185
7839 -0.84215994625919255 1.4681596243280646 2.6069925534776286 105 186 84 0.0083127221797373932 49 1592 33 1237
7840 -0.74979128443382881 0.18786463863962022 2.2590059723821132 186 134 74 0.2745569575029182 49 1527 33 1258 19 732 52 1198
7844 -0.83068220800672665 0.92628738529568522 2.6081987324957607 53 79 40 0.11870589660564065 82 1275 33 1272 70 367 61 1262
7846 -0.8980428296478995 1.0373772242251582 2.5883581121255923 65 109 48 0.19347529220877563 55 1685 33 1280
7850 -0.84170600516526817 0.285708493402002 2.9422170666259713 170 150 123 1.0597203099755981 49 623 33 1353 19 1559 52 1690 41 1473 9 1222 94 1175 13 1324 71 1301 96 1277 22 1242 99 949 56 779
7851 0.11308963058380056 0.96244076379393484 2.4036041582920853 168 145 113 1.9792766521428298 49 844 82 2014 33 1397
7852 0.028718804925606529 1.1544214871504959 2.4190668131857995 159 136 103 1.4396160386025054 43 1846 33 1398 13 1110
7854 -0.38090183761981955 1.5966571270291496 2.6521941728082314 0 0 0 0.22129418351818686 37 2119 64 1728
7855 -1.0298975471524996 0.98608568171879762 2.6133204275699065 210 195 119 0.2537035172230912 49 1865 33 1509
7856 -1.1287295590043465 1.1249831908254708 2.6028441820256472 92 144 65 0.24843722178864525 8 1373 49 1876 33 1514 52 1531 19 1382 41 1311
7858 -1.2611742535356296 0.8372299463026841 2.860223231797856 198 173 135 0.59363617172182426 49 1296 33 1539 41 1477 52 1712
7859 -1.2848548050608932 0.8761522879944782 2.9149807052402901 71 51 31 1.0751874554834604 76 1972 33 1541 52 1807 41 1550 9 1290 94 1300
7861 0.072843387194358733 1.2715216905335112 2.3021304827594733 0 0 0 0.99901987019301886 49 2070 33 1562
7864 -0.45173237740893901 1.3456107854806596 2.6001252902000398 254 244 161 0.05311957972378685 2 1927 33 1604
7866 -0.96945264591689118 0.50216440075274649 2.1917507905081304 72 123 48 0.63020465500562806 76 2057 33 1660 52 1765
7869 0.24836142008189541 0.7992541258326108 2.275817984413524 196 216 123 1.630775292367115 43 2216 76 1755 33 1700 41 1195
7874 -0.094613774827852604 1.0705666302712673 2.7088857405161639 159 162 104 0.28234068780108235 55 2314 33 1797 44 1378 50 1212
7875 -0.26828524758219352 0.85755799924892062 2.6989820099489004 52 99 49 0.77348443616731943 31 1628 49 2175 33 1802 41 1507 78 1294 44 1341 30 1153 51 1287
7879 -1.2185837218001894 1.1685473357392755 2.6281481797232171 80 142 67 0.46265952107837915 82 2170 61 2162 33 1525 55 2143 85 2207 60 2125 63 1868 41 1323 9 895
7880 -0.69632508882644129 1.254779854246348 2.5795670898794252 149 177 98 0.64145797313900177 77 1833 12 1254 33 1205 55 1917 43 1961 30 641
7881 -0.21645908403131331 0.68076894768384333 2.759893231962236 57 105 55 0.36579802421750091 63 1365 95 1400 2 1294 62 1323 34 1557 98 1128 8 1203 31 1139 33 1159 49 1748 63 1703 12 1523 62 1611 98 1365 83 1476 44 926 78 1054
7882 -0.62177022291433892 0.85718286249209574 2.6307642372060607 61 110 53 0.18950597430658669 74 1083 12 833 33 1225 16 1376 63 1501 95 1431 2 1298 62 1309 34 1591 77 1720 98 1010 31 1055 78 764 51 790 70 593
7883 -0.42537309739871565 1.0687976819132419 2.6195348429348728 188 181 112 0.33642337376202464 16 1718 49 1779 63 1761 95 1806 2 1636 62 1662 35 1996 34 1979 77 2097 12 1540 59 2052 55 1874 8 1374 83 1490 33 1443 54 1657 31 1450 43 1911 78 991 36 876
7884 -0.84248763004852745 1.1573699156882387 2.5806571114949 244 225 136 0.35952890118078773 8 1512 31 1416 33 1648 16 1902 49 2012 63 2008 95 2012 2 1806 54 1610 43 2166 61 2328 98 1447 62 1826 52 1660 19 1525 41 1429 9 1049
7885 -0.79304464153991883 1.2777135856736501 2.5770818359298322 218 213 126 0.74954355850411747 49 2004 63 1837 95 2024 2 1823 54 1450 34 2202 35 2196 77 2159 12 1697 55 2103 31 1225 83 1627 33 1635 49 2194 74 2112 16 2009 39 1144 41 1419 94 1123
7886 -0.87564706299851636 1.2550576363856483 2.5750751449988569 69 123 59 0.22921930916739214 43 2293 76 2227 33 1650 49 2015 55 2114
7887 -0.85994499939958513 0.96622806684602214 2.6006452707206043 56 89 44 0.28746591092638135 63 2004 55 2104 43 2163 49 2014 82 2302 33 1659 54 1607 77 2322 12 1666 98 1445 95 1989 61 2318 76 2092
7888 -0.817911612624588 0.96174263562564444 2.6017511892006562 186 174 104 0.31109580760294847 2 1897 16 1981 62 1904 74 2198 34 2282 77 2446 55 2221 49 2125 82 2431 43 2280 54 1734 61 2463 33 1744 8 1618 95 2106
7889 -1.3373616472979231 1.1519966087883782 2.9250748954855825 92 81 69 1.8738886838153239 49 2390 33 1972 55 2493 41 1769 9 1462
7890 -0.44210214393964509 1.4186132704803507 2.6073634364538321 94 169 76 0.25859564048387657 43 1139 33 230 46 293
7891 -0.66327436065820666 1.127688337208683 2.5823941431685826 120 144 78 0.059751131850421468 2 461 33 326
7892 0.32048628206014163 0.39811114812268222 1.8098220880025226 131 131 138 1.4545120611834175 33 640 41 6
7893 0.16042163006768242 0.48139418276684731 2.0930001450493685 0 0 0 0.054461340025039023 35 1519 74 1436
7895 -0.26931520823713778 0.66185998892113007 2.7494307593378537 152 150 91 0.86976229320508402 16 2147 49 2278 63 2277 62 2060 54 1923 34 2485 74 2402 77 2671 12 1929 59 2508 37 2516 100 2343 55 2363 82 2583 43 2447 61 2611 76 2340 98 1757 8 1804 31 1726 83 1882 33 1898 74 2350 35 2438
7896 0.3434360728191822 0.43635657845065634 1.8622032054509112 151 148 150 1.5990359585304554 63 715 79 70 43 797
7897 -0.23253246327093122 0.18104286237295517 1.8071721607607376 64 107 58 0.030398656497893084 85 89 79 76
7898 0.098925365988133507 0.36640829887045084 1.8781792029399957 67 112 62 0.12363532245243501 59 886 60 834 79 82 53 78
7900 -0.27129154411227618 1.3678087807034116 2.6318290462636349 0 0 0 0.2846812846068395 59 614 62 611
7903 -0.2169473737375047 0.29216931538974067 1.9424098709062114 50 86 45 0.069571523080510664 64 105 79 120 20 87
7904 -0.21712190073069931 0.2925970685362837 1.9425241309789438 50 86 45 0.072793822620894011 37 139 79 121
7905 0.25617459328128156 0.46693577008568832 2.0663896262172408 150 152 166 0.3992721852483605 77 133 79 129
7907 -0.080843201237244033 0.37812965246323865 1.994240816189663 177 181 133 0.12712661242907988 60 138 100 143 79 132
7910 -1.3488455718759238 0.60030990297471831 5.4549556578464289 0 0 0 2.7311270128052136 54 126 74 527
7913 -0.19454665424732839 0.34044536712006207 2.0189044125918949 186 187 140 0.098202107960326232 60 159 79 147 26 142 20 107 53 112 93 125 18 105
7917 -0.2557808176737128 0.31631920419292237 2.0361851388724754 45 80 43 0.28123730537120073 85 184 79 161 65 132 53 124 93 132
7918 -0.25536569267059772 0.31562062633762139 2.0364743612688279 45 80 43 0.28423202995672975 85 183 79 162 53 125 93 133
7922 -0.38823041378463291 0.25990349052438672 2.0528180755113321 57 89 51 0.11942004521496291 59 183 60 183 79 170
7923 -0.22769606005214713 0.35044837514639116 2.0824485671023165 149 157 118 0.10513540012170035 64 161 79 171 26 159
7925 -0.45244217981857288 0.21996006111691424 2.0647728129825498 46 81 41 0.059014386540817795 60 192 79 173
7926 -0.45341713795928995 0.22113826020094485 2.0634826524361101 46 81 41 0.12270240527282365 60 193 79 174 26 155 20 126 76 192 65 153 53 142 93 148 18 123 52 181
7929 -0.24326964980368709 1.4283653276764989 2.646541774170954 0 0 0 0.083200070012285993 74 700 83 544
7932 -0.4555288682982282 0.24309649247787501 2.1101944263778392 43 79 41 0.12502238904821464 60 210 85 209 79 192 20 143 53 154
7933 -0.30892230267525334 0.33914520601680576 2.1551715117078345 47 86 46 0.11245327825963629 60 223 79 198
7935 -0.475033411251092 0.24579886402490347 2.1445381539468129 168 163 113 0.1398570585054954 76 219 79 205
7939 -0.33006313544962235 0.34629988117584304 2.2083482754741346 50 91 49 0.08198018769164854 60 239 79 213 65 186
7940 -0.4469332612637576 0.28395627601679085 2.1868517272923231 51 88 45 0.035066418318836862 60 240 79 214 93 192 18 160
7941 -0.50441567173040014 0.23991982965638631 2.187480867282702 163 156 109 0.058238249493711203 85 242 79 218 18 161
7942 0.20872035809666381 0.082227503336358324 2.5384065355985808 137 146 105 2.8132617239055984 100 204 79 222
7947 0.18791208049396135 0.55752746802303244 2.4062965679633166 59 82 50 0.17674992554665778 60 255 79 245 20 884
7948 -0.34231304438184729 0.36915425463116308 2.2880985988153038 47 89 47 0.050767226336335299 60 264 79 253 65 219
7949 -0.31147881848469872 0.387243417827142 2.297126541462188 144 151 106 0.03061373992099807 60 265 79 254
7950 0.099858773980870202 0.57624591907265765 2.3959345250833168 64 112 53 0.15816024274758955 60 927 79 255 20 889
7951 -0.23699350260512175 0.42760650843990911 2.3270692295169129 68 100 60 0.049301496319481358 60 269 79 256 20 215
7953 -0.056822903034774469 -0.025667966204299841 2.5761249386420868 48 89 47 1.5737932961555758 100 200 79 259
7954 -0.17962123192260374 0.46002286074962412 2.3474870259895853 66 99 57 0.062199228101571066 60 272 79 266
7962 -0.51348946478054802 0.31159958222169049 2.3937900916097372 53 94 51 0.12924632833786873 60 315 79 300
7965 -0.50602832554707744 0.31583596643251621 2.4221880228839021 49 97 52 0.090009376181246548 60 318 79 311
7966 -0.27145179189982971 0.45158797390610989 2.5958777854999942 104 88 70 0.40050781238741712 60 336 79 346 26 1460 20 936
7967 -0.39393402913383868 0.39627513170998863 2.6068768567004019 147 151 163 0.70333289738082727 64 296 79 358 7 783 53 295 75 189
7968 -0.57395905379668144 0.31369607149765588 2.6274582693180899 148 144 149 0.14526904028509668 60 365 18 320
7969 0.11784189655496122 0.89357499023733733 2.8243493198790914 61 80 34 1.3059695482814682 79 387 65 889 19 1075
7970 -0.026337215504574168 1.443753903598662 2.6654671273287223 99 76 55 0.68560951627812905 60 429 79 418 20 984 26 1035
7971 -0.82369948304617724 1.0152647466042484 2.5931673317529738 255 251 146 0.14369682793427133 60 471 79 464
7972 -0.92724586049764424 1.0684342521866284 2.5872730384431692 96 166 76 0.36315504934361831 60 510 79 489
7973 -0.45259740704358437 1.5481364557595878 2.6251165140135173 104 183 97 0.051160031971545082 60 524 79 492
7975 -0.65634401054621505 1.4578204260728644 2.5980504600343779 95 165 88 0.049630508241396115 85 1220 79 514
7977 -0.94555140412759042 1.2221692635582277 2.5848178298123909 253 242 148 0.0015533910982465662 60 552 79 521
7979 -0.33773966874823075 0.99963640000288545 3.1071344953640065 87 143 75 0.69437483936176703 76 509 79 537
7982 -0.13989889117746188 1.770010968568164 2.8513327933785009 246 201 128 0.094309964304355315 76 1128 79 559
7983 -0.4708032904660705 1.6710253868336156 2.6985038249791362 203 210 161 0.14124175538618314 60 598 79 561 26 542
7984 -0.7991003752242577 1.4711281075265987 2.6047738308411379 90 149 79 0.018320862110639945 60 595 79 563
7987 -0.96463068387872342 1.3554038518686766 2.6086141213445804 81 137 71 0.0094766532924728478 60 605 79 572
7988 -0.53418014971841155 1.6731247877725026 2.7266837710964227 84 151 77 0.21706954658189223 60 631 79 580 20 1092
7989 -1.1552156511018514 1.2294986280993729 2.6218494222425583 82 132 68 0.38594672368462923 76 1293 79 595 18 503
7990 -0.7201660616710448 1.6249373337363795 2.6860764744658923 197 202 156 0.11247660199306746 60 666 79 600 26 1154 27 1019 53 479
7992 -0.67787698439281907 1.6527106125173188 2.7346895119176327 203 209 160 0.2895805584002879 60 1207 79 621 27 1637
7993 -0.83527037103104118 1.578210498077995 2.6817643482467806 177 181 137 0.12796082510495987 60 676 79 627 26 1158 20 563 27 1017 53 490 93 526 18 492
7994 -0.21328623140823891 1.7870361788254812 2.9929501947112684 203 205 217 0.15628706049054733 60 667 79 629 20 1168
7995 -0.96330350712838841 1.4855812580026497 2.6603844212502397 42 79 40 0.15723579830754197 60 675 79 631 26 1150 20 1090 27 1000 65 565 53 495 18 507
7996 -1.2446799147376966 1.2310936182003176 2.658313706791795 137 141 103 0.19587649277818217 60 673 79 649 20 1079 27 987 65 607 53 1068 93 589 18 538
7997 -0.77414214168990403 1.6297346965947273 2.7606342178774352 73 143 82 0.19121305105751729 60 699 79 653 26 641 20 634 27 536
7999 -1.1001269872327191 1.3791682487874393 2.6853116850318215 49 91 45 0.2062148762181352 60 689 79 655 26 576 20 573 93 586
8000 -1.0629429895515776 1.4153803154325093 2.6887848120710913 157 155 113 0.16931951779671867 60 693 79 656 26 581 20 580 27 466 53 526 93 580
8001 -0.87586115267411702 1.5729741793328558 2.7292779198619286 61 119 66 0.19162864667579246 60 701 79 659 26 621 20 1125 27 506 53 530 93 572
8002 -0.89609278969015771 1.5627483352112488 2.7247818971756761 60 109 60 0.16170791790114594 60 702 79 662 26 1186 20 1122 27 501 53 533 93 579 18 525
8003 -1.0799966635905534 1.4051755204408722 2.7058149123541422 57 105 56 0.15287558182326158 60 696 79 668 18 544
8004 -0.90387879928420933 1.5589256921511758 2.7491789640779776 59 117 63 0.29307025657062624 60 704 79 672 26 640 20 1134 27 529 53 548 93 595
8005 -0.90151090888199314 1.5562365523400787 2.7522128967533739 59 117 63 0.26085410016125882 60 705 79 673 26 639
8006 -0.83980578327744282 1.5951265291876258 2.7782498125932631 141 144 105 0.20047071738676589 60 709 79 679 53 554
8007 -0.85476766950157568 1.5915328677599565 2.7843787243498244 54 98 51 0.096132868766761748 60 711 79 682 53 560
8008 -0.23103113934689679 1.8061486446995867 3.1002642453628773 105 95 86 0.14182295410289503 60 1229 79 685
8009 -0.90717747183551189 0.31062528404212059 3.6307502713325177 109 101 94 0.30379366206621838 76 686 79 711 65 666 53 671 18 1107
8010 -0.98486531257884535 1.5409453019148736 2.8307421273740832 56 45 35 0.52705927414600728 60 734 79 719 26 1229 20 1174 27 576 65 1128 18 1058
8011 0.038788901970232374 0.16158350792445919 1.58652486285748 176 152 126 0.21455920106084839 60 1293 79 782 20 753
8012 0.067467359339619226 0.16482079591692628 1.601921544127811 196 163 131 0.43809912788636701 60 782 79 783 26 749 27 682
8013 0.26911571226935699 0.35147874980171234 1.7878251734004706 226 229 245 0.50270983691937898 64 750 85 826
8014 0.12199938221544532 0.32189637884036859 1.8347340703932993 74 146 85 0.15701882611619894 60 1323 79 806 26 791 20 788 27 712
8015 0.33159782633774121 0.43426067405288032 1.9024254481021634 226 233 250 0.047098568676214134 60 822 79 812
8019 -0.20877720694851473 0.2843593567963828 1.9203662255184371 46 83 44 0.12571372607198242 60 850 79 831 26 807
8020 -1.1771184534078971 1.0051000364643663 1.3994991394006751 182 175 124 1.8807293888515082 49 1226 79 832
8021 -0.07863471299241237 0.36177624998793806 1.9557742328221017 122 136 90 0.24859494684628802 85 1407 79 835
8024 -0.56704755317615896 0.78280623965505269 1.7164782283581994 43 77 40 0.47916014806480828 54 719 79 846
8026 -0.48733704863729632 0.13362650312424701 1.977369030590522 51 97 48 0.18230413858804476 76 883 79 851 53 769 93 793 18 737 65 782 52 718 19 650 13 501 71 58 96 526 22 41
8027 -0.85286217939732945 1.0126822109863185 2.593937391657033 0 0 0 0.017528699679488141 33 907 43 1243
8028 -0.48964638227606383 0.16334629629023759 1.987826937439922 74 103 55 0.40673822743893207 60 872 79 856
8031 -1.2436406507205657 1.0544259506164688 1.5247664735739519 44 80 40 1.5956330038917361 43 1254 79 874
8033 -0.46973830000642036 1.0315788863711912 2.6116560362563477 214 201 127 0.29990066353339839 77 1234 83 328 44 550 51 541 12 893
8034 0.22407991585331974 0.66708305963387315 2.2628801028529466 165 129 93 1.430547567300904 60 1800 79 890 20 1316
8036 -0.044586239087729837 0.5064747402444959 2.2781898671051777 48 87 45 0.11540276839305721 60 907 79 901 26 880 20 867
8039 0.1156382009895168 0.91585100297376743 2.2859637691540899 67 108 41 0.13745400037337158 60 947 79 925 20 219 26 273
8043 0.027747046074721192 1.2185630218227366 2.2565480777107019 86 72 39 0.33576135433700965 60 985 79 961 26 937 20 906 53 832 93 867 18 801
8044 0.027564480207616031 1.2188237873722987 2.2566989081237407 86 72 39 0.38115409040896681 60 986 79 962 20 905 26 936 53 833
8045 -0.18802546307499313 0.47619360787152804 2.4850877071822604 147 159 113 0.13087690754863573 60 976 79 969 53 864 93 897 18 249
8046 -0.35359224854069182 0.39509984926971969 2.4526825790437261 155 169 115 0.081132287940073669 60 977 79 972
8047 0.1369087843527014 0.6699998584389395 2.7567650250268438 222 228 247 0.43482056872583363 60 1504 79 997 20 1396 65 869 53 893 93 918 18 1265
8048 0.066620564595807147 1.255329647222204 2.485709177537569 248 252 255 0.25865868953452847 61 1057 79 999
8049 -0.21204430012468206 0.50434734958841643 2.6932201096724899 45 41 19 0.44030137904654743 60 1001 79 1002 26 976 20 951 27 894
8050 0.041326763740775672 1.403585625189278 2.6147317815515478 232 215 191 0.27549918140778779 60 1030 79 1024
8051 -0.041553706100854883 1.4287267809774207 2.7010602391622296 131 118 54 0.77481055804714583 76 364 79 1047 65 915 93 939 18 874
8052 -0.79155950984152068 1.0149646533005539 2.5941676168513714 255 251 146 0.2854964680682901 60 1575 79 1076
8053 -0.83406280917932063 0.93987359140460058 2.6124505852673945 198 211 116 0.01741257234732721 76 1610 79 1078
8054 0.21885710512325571 1.0258809321287139 3.2726898347310716 255 251 159 1.736737559690765 82 435 79 1101
8055 -0.90545260631614732 1.1925883385572809 2.585516770012287 94 154 77 0.30369649039175439 60 1622 79 1122
8056 -0.56335071510400037 1.585962164698014 2.6336639258826318 226 228 149 0.33049370028229097 60 1155 79 1133 20 484 65 1003
8060 -0.78404692458968417 1.5975309660085353 2.6751790044710031 52 96 50 0.24398655411276651 60 1202 79 1172 26 1590 20 1512 27 1384 65 536 53 1033 93 510 18 479
8061 -0.95691675013377386 1.4841319789250365 2.6434883837449692 89 118 74 0.35945936408152457 60 669 79 1180 26 1144 20 1078
8063 -1.1009640317579392 1.3646173295177035 2.6580158692612965 43 81 40 0.10531806173196412 60 1211 79 1196 26 1145 20 1086
8064 -1.2061763122918163 1.2778415664017271 2.6395186015194723 95 120 76 1.0379473067246345 60 671 61 1429 79 1198 26 1577 20 1505
8066 -1.1924512020029254 1.2989319046047083 2.6944270288562371 51 98 51 0.26286962322691293 60 1225 79 1217 26 572 20 1100 65 614 53 1082 93 1090
8067 -1.2412897321625787 1.2785582904508546 2.8306993545847772 183 182 192 0.41605706947141119 60 1250 79 1245 26 1618 20 1558 27 1419 53 1139 93 1135 18 1078
8068 -1.0290892533835612 1.5076229137624335 2.8495851392914209 141 130 118 0.35485598971114668 60 1268 79 1250 26 1236
8069 -1.336207874185217 1.2530086058253089 2.9040606821360959 189 188 195 0.59691735225699694 60 1276 79 1273 26 1647 27 1442 53 658
8071 -0.19524628693174789 0.22830904406416541 1.8333014955577842 150 155 112 0.12442947417608491 100 1382 79 1316
8072 -0.10903878553639695 0.28811767240385505 1.8601983574540626 46 84 44 0.43466781525855824 85 1829 100 1790 79 1318 93 762 7 1075
8073 -0.16601755745502358 0.26695207159055789 1.8637928145818743 51 93 48 0.17173249566966289 37 1896 60 1345 79 1320
8075 -0.42942218635722884 0.25411244475825584 2.0980059960500754 43 84 43 0.11419938695680962 60 1402 79 1362
8078 -0.29331126340473468 0.34386175917663642 2.1428959390551947 46 86 44 0.042020338691799573 60 1406 79 1369 26 1378
8080 0.020914893849995016 0.51870711199820585 2.2395402366237125 46 81 40 0.074877729846921051 60 1413 79 1375 27 1228
8082 -0.33618141965703852 1.3353831762374602 2.6195740770035569 0 0 0 0.018200144807180275 31 989 62 1465
8083 -0.095140850706484953 0.47393292467760223 2.2454305094401277 46 85 45 0.12053390162031592 60 1419 79 1382 20 1318 27 1232 65 1222
8085 -0.41260583468348921 0.33126221184392773 2.2575715209712328 48 90 48 0.13199383264295511 60 1436 79 1395 26 1400 53 1267 65 1244 93 1264 18 1222
8086 -0.41053608614933063 0.32969596011005275 2.258645715473472 48 90 48 0.24519838728912965 60 1437 79 1396 26 1401 65 1245 53 1268 93 1265 18 1223 80 991
8087 -0.41325668323909576 0.33666764092961837 2.2829532528725274 170 174 128 0.14135269507756237 60 1442 79 1401 26 1404 27 1241 53 1271
8089 -0.24450824913802288 0.43633605740893883 2.3838365027097304 74 104 63 0.1665202697400926 64 1284 79 1414 65 1257 53 1285 93 1279 18 1235
8090 -0.28552264411476891 0.42761415603895353 2.4034620084415348 112 131 88 0.24277837485180073 60 1463 79 1417 27 1277
8091 -0.21418660741288467 0.46252695430451957 2.4654909588498275 117 155 96 0.21370419743797947 60 1469 79 1423 20 1371 26 1446 27 1285
8092 -0.2263631653155109 0.45836713658417394 2.4875908583154738 64 129 69 0.43927464499038577 60 1476 79 1425 26 1755 20 1699 27 1553 65 856 53 1295 93 1290 18 1245
8093 -0.48433544092512432 0.33604945093838645 2.4282853043040484 51 99 53 0.049960852087639902 60 1477 79 1426
8094 0.22670421252113251 0.68532881834007553 2.655438858230641 222 233 253 0.45305973514378534 60 1482 76 1444 79 1431 26 1762 20 1703 60 1830 53 1310 93 1300 93 1560 18 840
8095 -0.42055682680292433 0.40899793805851831 2.6991208955431349 152 156 167 0.46507076713609474 60 1516 79 1457 26 1469 53 1327
8097 -0.46546782926270708 1.4941257595916189 2.6144517512024965 251 244 153 0.26185073712669293 60 1612 79 1536
8098 -0.99474223930088024 0.92189439219292935 2.6154242997486805 247 234 135 0.031476819731206494 60 1592 79 1539
8102 -0.67204951027219428 1.5704944791690942 2.6297234358531116 211 215 139 0.26931209202078443 61 1817 79 1575
8105 -1.2475784052356873 0.91319603488594558 2.6950017358207519 24 45 21 0.58521096747304835 60 1157 61 1863 79 1597 20 1474 26 1545 65 588 61 746 53 1420 18 1006
8106 -1.1893464568511107 1.1220498985973646 2.6177002325064618 90 146 70 0.28721290239620262 60 1660 79 1598 53 1410
8107 -0.41319263618152374 1.701246909698394 2.8374054848321997 242 248 255 0.48922363657258766 60 1682 79 1615 65 499 53 1426 18 982
8108 -1.2636019538997916 1.2122993427946784 2.6385067844835111 63 113 56 0.47721402430223936 60 1694 79 1625 26 1570 20 1501 53 1055 93 1426
8109 -1.2218635217487896 1.2506353723201642 2.6474701058632792 61 109 61 0.25562594295295604 60 1203 79 1627 26 1574 20 1504
8110 -1.0915428208421698 1.3759107866130034 2.6644724252186802 145 143 103 0.14761299775397899 60 1699 79 1628 26 1584 20 1511 53 1438
8111 -1.223975811382273 1.2605984130148711 2.6760232478403281 50 94 46 0.28980545957265164 60 1217 79 1630 26 1583 20 1515 27 1374 53 1447 93 1435 65 1124 18 1379
8112 -1.2234804754826565 1.2603692862615941 2.676452943029227 50 94 46 0.33898288306371771 60 1218 79 1631 20 1516 65 1123 53 1448 93 1436 18 1380
8116 -0.74515185225246194 1.6674215383366444 2.8299787956198479 183 180 187 0.33934261094978047 60 1240 79 1646 26 1902 20 1836
8117 -0.73142360141121998 1.6790792788833697 2.8392137460839502 82 57 30 0.29823612353867779 60 1721 79 1647 20 1839 26 1905
8118 -0.64099558727871908 1.7002067941595331 2.8955739125247288 216 224 243 0.43312676239756354 60 1241 79 1648 20 1843 26 1910
8119 -0.90691113558702141 0.28314070157091287 3.5910366424124378 255 253 208 0.37198276406171477 76 1950 79 1649 65 1718 53 1499 93 1686
8120 -1.3059286952629596 1.1935912360950138 2.748713673242523 133 133 92 0.22251434436143627 60 1233 79 1652 26 1596 20 1814 53 1696
8121 -1.3627211747201522 1.2295466050023931 2.9050440409806262 81 61 41 0.22474444081882891 60 1739 79 1682 26 1646 20 1587 27 1436
8122 -1.4616363633807077 1.2847809547658395 3.4007859021436766 184 170 167 0.53293333681161836 60 1747 79 1686 26 1668 53 1506
8123 0.029770334565238858 0.1932889400971381 1.6621494657837104 101 84 55 0.16780623386913626 60 1750 79 1692 26 1675 20 1619 53 1509
8124 0.016632753045747191 0.19934278363773372 1.6865057428246544 216 219 232 0.30066005547758995 60 1752 79 1695 20 1624 65 1518 53 1511 93 1493 13 8
8125 -0.23332421219309923 0.28799759676084496 1.9499316563512912 44 81 43 0.19910566769347288 64 1580 79 1715 20 1638 53 1533 100 2051 18 1458 7 1347
8126 -0.23304810000099901 0.28859299256243376 1.9500060800553785 44 81 43 0.12723496487849961 64 1581 79 1716
8127 0.043577048529945463 0.49047323819324118 2.1435744098018938 53 89 43 0.13918957588980949 60 2011 79 1727 53 1547
8130 -0.4807940474670101 0.2784901211834554 2.2205826174029557 43 82 41 0.18680574387266891 60 1807 79 1738 20 1664 26 1724 65 1575 93 1529 53 1561 18 1482
8131 -0.16086786629298216 0.45012908028353971 2.28638199064642 45 84 44 0.008397264757140456 60 1808 79 1739
8132 -0.46617885739296716 0.29234723612627822 2.2358787200242811 148 152 106 0.10599401231919159 60 1810 79 1742 53 1565
8133 -0.56775318258748453 0.18709768404141042 2.2481341392112668 129 133 89 0.28551399884064249 60 1433 79 1743 26 1397
8134 0.029747245888198028 1.1899701770579563 2.2417024480793688 246 227 192 0.27883380104651467 60 1831 79 1754 65 1239 53 1275 18 1226
8135 0.049762724900420545 1.1074074979899702 2.3419403809854673 0 0 0 1.1509606081080588 49 1704 79 1761 65 1579 41 587 19 660
8136 0.1465591308921223 0.68715731085311649 2.7900424408925932 206 213 229 0.44974775297572578 60 1840 79 1774 26 1981 20 1917 65 1283 53 1602 93 1319 18 1271
8137 -0.84880955628054378 1.1848629303267648 2.5828924192501059 104 163 81 0.27344610581254436 60 1897 79 1813
8139 -1.1801086614612801 0.8928875912923171 2.6085729240385378 248 240 218 0.99277347094859447 60 1902 79 1819 26 1809 20 1931 27 1584 53 1639 93 1614 18 1566
8140 -1.194844701179824 0.88260940677701205 2.608857630250303 100 77 52 0.46942190097719744 61 1839 79 1820 53 1391 93 1386 65 1442 18 1338
8142 -0.24789126662595146 1.7480454590755254 2.8672617801049993 114 88 66 0.66608125009410324 60 2121 79 1843 26 2134 20 2048 53 1662 65 1010 93 1401 18 1340
8143 -0.67047229358989857 1.6289050197159565 2.6688218323604249 91 130 81 0.79752862630921795 60 1942 79 1848 65 1420 93 1390 18 1335
8144 -1.0476592943050096 1.4188352751768323 2.6679267735748913 150 146 105 0.3187895901120531 60 1951 79 1870 26 2027 20 1946 27 1774 65 1698 76 1289 53 1825 93 1635 18 1588
8145 -1.2536930440233744 1.223849748547299 2.6690812640459667 50 94 46 0.16655514404432431 60 1698 79 1873 20 1797 26 1865
8147 -0.94613835987300055 1.5517932991402632 2.7899598026487458 210 199 197 0.2338372340375027 60 1963 79 1893 26 1895 20 1830 27 1649 65 1704 53 1692 93 1651
8148 -1.2105823506458766 1.2780729851662438 2.7800012796144475 58 122 70 0.47775288694039986 60 2142 79 1895 27 1785 53 1700
8149 -0.9539448150302875 1.5666211764567355 2.8687421717763724 172 174 184 0.23174969225854514 60 1973 79 1901 53 1710 93 1466 65 1129
8151 -0.30707412004017143 0.15567128234714817 1.8292979534400249 56 109 56 0.25088854385096548 85 2088 79 1919
8152 -0.99295317009289852 0.93515622327243908 1.5849758767034616 45 80 43 0.33164249537090817 49 1997 79 1932
8155 -0.22690051611735462 0.35853579436115496 2.1032907465033066 46 85 45 0.18186135607229287 60 2014 79 1938 26 1948 85 2106 20 1884 7 1360 53 1546 93 1518 18 1472 75 1115
8156 -0.44371807874487579 0.25592360622046889 2.1172272185214251 43 80 40 0.14119679821891684 60 2018 79 1941 26 1952 65 1766 93 1720 18 1673
8159 -0.30033545200959916 0.38652097327802865 2.2746959862224916 49 91 48 0.15026651192462764 60 2027 79 1951 93 1535 18 1486
8162 -0.44461434029186303 0.37346721047037468 2.6476737645580792 83 67 45 0.53674414741761967 60 1841 79 1981 26 1770 20 1913 7 1608 80 1391
8164 -0.68324256072432488 1.6489595363822893 2.7265832576428837 165 183 134 0.58265973661905002 60 2137 79 2043 53 1820 93 1631 18 1579
